# .PCD v0.7 - Point Cloud Data file format
VERSION 0.7
FIELDS x y z rgb
SIZE 4 4 4 4
TYPE F F F F
COUNT 1 1 1 1
WIDTH 1016
HEIGHT 1
VIEWPOINT 0 0 0 1 0 0 0
POINTS 1016
DATA ascii
-0.12880599 -1.9994642 0.77470016 8.1074042e-39
-0.12307917 -1.9994642 0.77470016 8.1074056e-39
-0.11735237 -1.9994642 0.77470016 8.1074056e-39
-0.1135345 -1.9994642 0.77470016 8.1074056e-39
-0.10780768 -1.9994642 0.77470016 8.1074056e-39
-0.10208087 -1.9994642 0.77470016 8.107407e-39
-0.098263003 -1.9994642 0.77470016 8.107407e-39
0.12699148 -1.9994634 0.77470046 7.9237431e-39
0.13271828 -1.9994634 0.77470046 7.9233815e-39
0.13844509 -1.9994634 0.77470046 7.8315432e-39
0.14226297 -1.9994634 0.77470046 7.8311831e-39
0.14798978 -1.9994634 0.77470046 7.8311831e-39
0.15371658 -1.9994634 0.77470046 7.8311831e-39
0.15753445 -1.9994634 0.77470046 7.8311831e-39
0.16135232 -1.9994634 0.77470046 7.8311831e-39
0.16707912 -1.9994633 0.77470052 7.8311831e-39
0.17280592 -1.9994632 0.77470058 7.8311845e-39
0.17662379 -1.9994632 0.77470058 7.8311845e-39
0.18235061 -1.9994632 0.77470058 7.8315432e-39
0.18807741 -1.9994632 0.77470058 7.9233787e-39
0.19189528 -1.9994632 0.77470058 7.9233801e-39
0.19762209 -1.9994632 0.77470058 7.9233801e-39
0.20334889 -1.9994632 0.77470058 7.9233801e-39
0.20716676 -1.9994632 0.77470058 7.9233801e-39
0.21289358 -1.9994632 0.77470058 7.8315446e-39
0.21862037 -1.9994632 0.77470058 7.8315446e-39
0.22243825 -1.9994632 0.77470058 7.8315446e-39
0.22625612 -1.9994632 0.77470058 7.8315446e-39
0.23198292 -1.9994632 0.77470058 7.9233815e-39
0.23770973 -1.9994632 0.77470058 7.9237403e-39
0.2415276 -1.9994632 0.77470058 7.9237403e-39
0.2472544 -1.9994631 0.77470064 7.9237417e-39
0.25298119 -1.999463 0.77470064 7.9237417e-39
0.25679904 -1.999463 0.77470064 7.9237431e-39
0.26252586 -1.999463 0.77470064 7.8315474e-39
0.26825267 -1.999463 0.77470064 7.831546e-39
0.27207053 -1.999463 0.77470064 7.8315446e-39
0.27779737 -1.999463 0.77470064 7.7393504e-39
0.28352416 -1.999463 0.77470064 7.8315474e-39
0.28734201 -1.999463 0.77470064 7.8319076e-39
0.29306886 -1.999463 0.77470064 7.831909e-39
0.29879564 -1.999463 0.77470064 7.831909e-39
0.3026135 -1.999463 0.77470064 7.8319076e-39
0.30643141 -1.999463 0.77470064 7.8319062e-39
0.3121582 -1.999463 0.77470064 7.8315446e-39
0.31788498 -1.999463 0.77470064 7.9233801e-39
0.3217029 -1.999463 0.77470064 7.8315446e-39
0.32742968 -1.999463 0.77470064 7.8315446e-39
0.33315647 -1.999463 0.77470064 7.8319048e-39
0.33697432 -1.9994628 0.77470076 7.8319062e-39
0.34270111 -1.9994628 0.77470076 7.831909e-39
0.34842795 -1.9994628 0.77470076 7.8322705e-39
0.35224581 -1.9994628 0.77470076 7.8322719e-39
0.35797259 -1.9994628 0.77470076 7.8319104e-39
0.36369944 -1.9994628 0.77470076 7.8315488e-39
0.36751729 -1.9994628 0.77470076 7.7397105e-39
0.37133515 -1.9994628 0.77470076 7.739349e-39
0.37706196 -1.9994628 0.77470076 7.7393504e-39
0.38278878 -1.9994628 0.77470076 7.8319062e-39
0.38660663 -1.9994628 0.77470076 7.8319076e-39
0.39233345 -1.9994628 0.77470076 7.8319076e-39
0.39806026 -1.9994628 0.77470076 7.8319076e-39
0.40187812 -1.9994628 0.77470076 7.8319062e-39
0.4076049 -1.9994627 0.77470082 7.8315446e-39
0.41333175 -1.9994628 0.77470076 7.8315446e-39
0.41714954 -1.9994626 0.77470088 7.8315446e-39
0.42287636 -1.9994626 0.77470088 7.8319034e-39
0.42860317 -1.9994626 0.77470088 7.9237389e-39
0.43242103 -1.9994626 0.77470088 1.6410822e-38
0.79893595 -1.9994612 0.7747016 7.9230144e-39
0.80275381 -1.9994612 0.7747016 7.9230144e-39
0.80657172 -1.9994612 0.7747016 7.9230144e-39
0.81229854 -1.9994612 0.7747016 8.0148499e-39
0.81802529 -1.9994612 0.7747016 8.0148499e-39
0.82184315 -1.9994612 0.7747016 8.01521e-39
0.82756996 -1.9994612 0.7747016 8.01521e-39
0.83329678 -1.9994612 0.7747016 8.0152114e-39
0.83711463 -1.9994612 0.7747016 8.0152114e-39
0.84284139 -1.9994612 0.7747016 8.0152114e-39
0.84856814 -1.9994608 0.77470165 7.9233759e-39
0.852386 -1.9994608 0.77470165 7.9233773e-39
0.85620385 -1.9994608 0.77470165 7.9233773e-39
0.86193073 -1.9994608 0.77470165 7.9233787e-39
0.86765748 -1.9994608 0.77470165 7.9233787e-39
0.87147534 -1.9994608 0.77470165 7.9230186e-39
0.87720215 -1.9994608 0.77470165 7.8308216e-39
0.88292897 -1.9994608 0.77470165 7.8308216e-39
0.88674682 -1.9994608 0.77470165 7.7386259e-39
0.89247358 -1.9994608 0.77470165 7.7386259e-39
0.89820039 -1.9994608 0.77470165 7.7386245e-39
0.90201819 -1.9994606 0.77470177 7.7386245e-39
0.907745 -1.9994607 0.77470171 7.7386245e-39
0.91347176 -1.9994606 0.77470177 7.7389847e-39
-0.91158849 -1.9899468 0.77469921 7.831546e-39
-0.90778571 -1.9899468 0.77469921 7.8315446e-39
-0.90208149 -1.9899468 0.77469921 7.8315446e-39
-0.89637727 -1.9899468 0.77469921 7.8315446e-39
-0.89257437 -1.9899465 0.77469933 7.8315446e-39
-0.88877159 -1.9899465 0.77469933 7.8315446e-39
-0.88306737 -1.9899465 0.77469933 7.8315446e-39
-0.87736315 -1.9899465 0.77469933 7.8315474e-39
-0.87356037 -1.9899465 0.77469933 7.8319076e-39
-0.86785614 -1.9899465 0.77469933 7.831909e-39
-0.86215198 -1.9899465 0.77469933 7.8319076e-39
-0.85834914 -1.9899465 0.77469933 7.831546e-39
-0.85264492 -1.9899465 0.77469933 7.7389903e-39
-0.84694076 -1.9899465 0.77469933 7.7389889e-39
-0.84313792 -1.9899465 0.77469933 7.739349e-39
-0.8374337 -1.9899465 0.77469933 7.831546e-39
-0.83172953 -1.9899465 0.77469933 7.8319076e-39
-0.8279267 -1.9899465 0.77469933 7.9241032e-39
-0.82222247 -1.9899464 0.77469939 7.9237431e-39
-0.81651831 -1.9899465 0.77469933 7.8319062e-39
-0.81271541 -1.9899462 0.77469945 7.831546e-39
-0.80701119 -1.9899462 0.77469945 7.8315446e-39
-0.80130696 -1.9899462 0.77469945 7.9237403e-39
-0.79750419 -1.9899462 0.77469945 7.9237403e-39
-0.79370141 -1.9899462 0.77469945 7.9237403e-39
-0.78799719 -1.9899462 0.77469945 7.9237389e-39
-0.78229296 -1.9899462 0.77469945 8.0159331e-39
-0.77849019 -1.9899462 0.77469945 8.0159331e-39
-0.77278596 -1.9899462 0.77469945 8.1077672e-39
-0.76708174 -1.9899462 0.77469945 8.1077672e-39
-0.76327896 -1.9899462 0.77469945 8.0155715e-39
-0.75947613 -1.9899462 0.77469945 8.0155715e-39
-0.74806774 -1.9899462 0.77469945 7.9233759e-39
-0.74236351 -1.9899461 0.77469945 7.9233759e-39
-0.73665923 -1.989946 0.77469951 8.0152128e-39
-0.73285645 -1.989946 0.77469951 8.0152128e-39
-0.72715223 -1.989946 0.77469951 8.015573e-39
-0.721448 -1.989946 0.77469951 8.0155758e-39
-0.71764523 -1.989946 0.77469951 8.0159359e-39
-0.711941 -1.989946 0.77469951 8.0159373e-39
-0.70623684 -1.989946 0.77469951 8.0162988e-39
-0.702434 -1.989946 0.77469951 8.0163002e-39
-0.69863123 -1.989946 0.77469951 8.0166604e-39
-0.692927 -1.989946 0.77469951 8.0163016e-39
-0.68722278 -1.989946 0.77469951 8.0162988e-39
-0.68342 -1.989946 0.77469951 7.9241032e-39
-0.67771578 -1.989946 0.77469951 7.9237417e-39
-0.67201161 -1.989946 0.77469951 7.9237403e-39
-0.66820878 -1.989946 0.77469951 7.9237389e-39
-0.66250455 -1.989946 0.77469951 7.9233773e-39
-0.65680039 -1.989946 0.77469951 7.9233759e-39
-0.65299755 -1.989946 0.77469951 7.9233759e-39
-0.64729333 -1.9899459 0.77469957 7.9233745e-39
-0.64158911 -1.9899459 0.77469963 7.9230158e-39
-0.63778627 -1.9899459 0.77469963 7.9230158e-39
-0.6320821 -1.9899459 0.77469963 7.9233759e-39
-0.62637788 -1.9899459 0.77469963 8.015573e-39
-0.62257504 -1.9899459 0.77469963 8.0155744e-39
-0.61877227 -1.9899459 0.77469963 8.0159345e-39
-0.6130681 -1.9899459 0.77469963 8.0155758e-39
-0.60736388 -1.9899459 0.77469963 7.9237403e-39
-0.60356104 -1.9899459 0.77469963 7.9237403e-39
-0.59785688 -1.9899459 0.77469963 7.8319048e-39
-0.59215266 -1.9899459 0.77469963 7.831546e-39
-0.58834982 -1.9899459 0.77469963 7.8315446e-39
-0.58264565 -1.9899459 0.77469963 7.7393504e-39
-0.57694143 -1.9899459 0.77469963 7.7393504e-39
-0.57313865 -1.9899459 0.77469963 7.8311859e-39
-0.56743443 -1.9899459 0.77469963 7.8311859e-39
-0.56173015 -1.9899457 0.77469969 7.8311859e-39
-0.55792737 -1.9899457 0.77469969 7.831546e-39
-0.55222315 -1.9899457 0.77469969 7.8319076e-39
-0.54651892 -1.9899457 0.77469969 7.9241046e-39
-0.54271615 -1.9899457 0.77469969 7.9244647e-39
-0.53701198 -1.9899457 0.77469969 7.9244633e-39
-0.53130776 -1.9899457 0.77469969 7.9244633e-39
-0.52750492 -1.9899457 0.77469969 7.9244633e-39
-0.52370214 -1.9899457 0.77469969 7.9244619e-39
-0.51799792 -1.9899457 0.77469969 7.9237417e-39
-0.51229376 -1.9899457 0.77469969 7.9237417e-39
-0.50849092 -1.9899457 0.77469969 7.9233815e-39
-0.50278676 -1.9899457 0.77469969 7.9233801e-39
-0.49708253 -1.9899457 0.77469969 7.9233815e-39
-0.4932797 -1.9899457 0.77469969 7.9237403e-39
-0.4875755 -1.9899457 0.77469969 7.9237417e-39
-0.48187125 -1.9899454 0.77469981 8.0155758e-39
-0.47806847 -1.9899454 0.77469981 8.0155758e-39
-0.47236425 -1.9899454 0.77469981 8.0155744e-39
-0.46666008 -1.9899454 0.77469981 8.1074084e-39
-0.46285725 -1.9899454 0.77469981 8.1074084e-39
-0.45715305 -1.9899454 0.77469981 8.0155715e-39
-0.45144886 -1.9899454 0.77469981 8.0152114e-39
-0.44764602 -1.9899454 0.77469981 8.0152114e-39
-0.44194186 -1.9899454 0.77469981 7.9233745e-39
-0.43623763 -1.9899454 0.77469981 7.9230144e-39
-0.43243486 -1.9899454 0.77469981 7.9230144e-39
-0.42863202 -1.9899454 0.77469981 7.923013e-39
-0.42292783 -1.9899454 0.77469981 7.923013e-39
-0.41722363 -1.9899454 0.77469981 8.0148485e-39
-0.41342086 -1.9899454 0.77469981 8.0148485e-39
-0.4077166 -1.9899453 0.77469987 8.0148485e-39
-0.40201235 -1.9899452 0.77469993 8.0148499e-39
-0.39820957 -1.9899452 0.77469993 8.0148499e-39
-0.39250538 -1.9899452 0.77469993 7.9230144e-39
-0.38680118 -1.9899452 0.77469993 8.0148513e-39
-0.38299835 -1.9899452 0.77469993 8.0152114e-39
-0.37729418 -1.9899452 0.77469993 8.0152114e-39
-0.37158996 -1.9899452 0.77469993 8.1074084e-39
-0.36778718 -1.9899452 0.77469993 8.015573e-39
-0.36208296 -1.9899452 0.77469993 8.0152128e-39
-0.35637873 -1.9899452 0.77469993 7.9233773e-39
-0.35257596 -1.9899452 0.77469993 7.9230186e-39
-0.34877318 -1.9899452 0.77469993 7.8311817e-39
-0.34306896 -1.9899452 0.77469993 7.8308202e-39
-0.33736473 -1.9899452 0.77469993 7.7386259e-39
-0.33356196 -1.9899452 0.77469993 7.7386245e-39
-0.3278577 -1.9899451 0.77470005 7.7386245e-39
-0.32215351 -1.9899451 0.77470005 7.7389861e-39
-0.31835073 -1.9899451 0.77470005 7.7389861e-39
-0.31264651 -1.9899451 0.77470005 7.830823e-39
-0.30694228 -1.9899451 0.77470005 7.8311817e-39
-0.30313951 -1.9899451 0.77470005 7.8311831e-39
-0.29743528 -1.9899451 0.77470005 7.8311831e-39
-0.29173112 -1.9899451 0.77470005 7.8311831e-39
-0.28792828 -1.9899451 0.77470005 7.8311831e-39
-0.28222409 -1.9899451 0.77470005 7.8311817e-39
-0.27651989 -1.9899451 0.77470005 7.9230172e-39
-0.27271712 -1.9899451 0.77470005 7.9230172e-39
-0.26701289 -1.9899451 0.77470005 7.9230158e-39
-0.26130867 -1.9899451 0.77470005 7.9230158e-39
-0.25750589 -1.9899451 0.77470005 7.9230144e-39
-0.25370306 -1.9899451 0.77470005 7.9230158e-39
-0.24799889 -1.9899451 0.77470005 7.9230158e-39
-0.24229465 -1.9899448 0.77470011 7.9230158e-39
-0.23849185 -1.9899448 0.77470011 8.0148513e-39
-0.23278764 -1.9899448 0.77470011 8.0152114e-39
-0.22708344 -1.9899448 0.77470011 8.0152128e-39
-0.22328065 -1.9899448 0.77470011 8.0152128e-39
-0.21757644 -1.9899448 0.77470011 8.015573e-39
-0.21187225 -1.9899448 0.77470011 8.0155744e-39
-0.20806944 -1.9899448 0.77470011 8.0159345e-39
-0.20236525 -1.9899448 0.77470011 8.0159345e-39
-0.19666104 -1.9899448 0.77470011 8.0159345e-39
-0.19285823 -1.9899448 0.77470011 8.1077672e-39
-0.18715404 -1.9899448 0.77470011 8.1074056e-39
-0.18144985 -1.9899448 0.77470011 8.1070441e-39
-0.17764704 -1.9899448 0.77470011 8.1070441e-39
-0.17194283 -1.9899448 0.77470011 8.0148485e-39
-0.16623864 -1.9899448 0.77470011 8.0148485e-39
-0.16243581 -1.9899446 0.77470011 8.0148485e-39
-0.15863301 -1.9899446 0.77470011 8.0148485e-39
-0.15292881 -1.9899446 0.77470011 8.0148485e-39
-0.14722462 -1.9899446 0.77470011 8.0148485e-39
-0.14342181 -1.9899446 0.77470011 8.0148485e-39
-0.1377176 -1.9899446 0.77470011 8.0152072e-39
-0.13201341 -1.9899446 0.77470011 8.1070441e-39
-0.1282106 -1.9899446 0.77470011 8.1070455e-39
-0.12250641 -1.9899446 0.77470011 8.1074042e-39
-0.11680222 -1.9899446 0.77470011 8.1074042e-39
-0.11299941 -1.9899446 0.77470011 8.1070455e-39
-0.10729521 -1.9899446 0.77470011 8.1070441e-39
-0.10159101 -1.9899446 0.77470011 8.1070455e-39
-0.097788207 -1.9899446 0.77470011 8.1074042e-39
0.12657697 -1.9899439 0.7747004 7.9241018e-39
0.13228117 -1.9899439 0.7747004 7.9237389e-39
0.13798538 -1.9899439 0.7747004 7.9233787e-39
0.14178817 -1.9899439 0.7747004 7.9233759e-39
0.14749236 -1.9899439 0.7747004 7.8311817e-39
0.15319656 -1.9899439 0.7747004 7.8311817e-39
0.15699936 -1.9899439 0.7747004 7.8311817e-39
0.16270357 -1.9899439 0.7747004 7.8311817e-39
0.16840774 -1.9899436 0.77470052 7.8311831e-39
0.17221054 -1.9899436 0.77470052 7.8311831e-39
0.17791474 -1.9899436 0.77470052 7.8311831e-39
0.18361893 -1.9899436 0.77470052 7.9233787e-39
0.18742174 -1.9899436 0.77470052 7.9230186e-39
0.19122453 -1.9899436 0.77470052 7.9230186e-39
0.19692874 -1.9899436 0.77470052 7.9230172e-39
0.20263293 -1.9899436 0.77470052 7.9233773e-39
0.20643573 -1.9899436 0.77470052 7.9233773e-39
0.21213993 -1.9899436 0.77470052 7.9233787e-39
0.21784413 -1.9899436 0.77470052 7.9237389e-39
0.22164692 -1.9899436 0.77470052 7.9237403e-39
0.22735113 -1.9899436 0.77470052 7.9237403e-39
0.23305532 -1.9899436 0.77470052 7.9237417e-39
0.23685811 -1.9899436 0.77470052 7.9237417e-39
0.24256232 -1.9899436 0.77470052 7.9237417e-39
0.24826649 -1.9899434 0.77470058 7.9237431e-39
0.25206929 -1.9899434 0.77470058 7.9237445e-39
0.25777346 -1.9899434 0.77470058 7.9237445e-39
0.26347768 -1.9899434 0.77470058 7.9237445e-39
0.26728046 -1.9899434 0.77470058 7.831909e-39
0.27298468 -1.9899434 0.77470058 7.8319076e-39
0.27868885 -1.9899434 0.77470058 7.8319076e-39
0.28249168 -1.9899434 0.77470058 7.8319076e-39
0.28629446 -1.9899434 0.77470058 7.8319076e-39
0.29199868 -1.9899434 0.77470058 7.8319076e-39
0.29770285 -1.9899434 0.77470058 7.8319076e-39
0.30150568 -1.9899434 0.77470058 7.8319062e-39
0.30720985 -1.9899434 0.77470058 7.831546e-39
0.31291407 -1.9899434 0.77470058 7.8315446e-39
0.31671685 -1.9899434 0.77470058 7.8315446e-39
0.32242104 -1.9899433 0.77470064 7.8315446e-39
0.32812524 -1.9899433 0.7747007 7.8315446e-39
0.33192801 -1.9899433 0.7747007 7.8315446e-39
0.33763221 -1.9899433 0.7747007 7.8315446e-39
0.3433364 -1.9899433 0.7747007 7.8319062e-39
0.34713918 -1.9899433 0.7747007 7.8319076e-39
0.3528434 -1.9899433 0.7747007 7.831909e-39
0.35854757 -1.9899433 0.7747007 7.8315474e-39
0.3623504 -1.9899433 0.7747007 7.7397105e-39
0.3680546 -1.9899433 0.7747007 7.7389903e-39
0.37375879 -1.9899433 0.7747007 7.7389903e-39
0.37756157 -1.9899433 0.7747007 7.7393504e-39
0.38136441 -1.9899433 0.7747007 7.831546e-39
0.38706857 -1.9899433 0.7747007 7.8319076e-39
0.39277273 -1.989943 0.77470082 7.9241032e-39
0.39657551 -1.989943 0.77470082 7.9241018e-39
0.40227973 -1.989943 0.77470082 7.8319048e-39
0.4079839 -1.989943 0.77470082 7.8315446e-39
0.41178674 -1.989943 0.77470082 7.8315446e-39
0.4174909 -1.989943 0.77470082 7.9233801e-39
0.42319512 -1.989943 0.77470082 7.9237403e-39
0.4269979 -1.989943 0.77470082 7.9237403e-39
0.79967147 -1.9899416 0.77470148 8.0148485e-39
0.80347425 -1.9899416 0.77470148 8.0148485e-39
0.80727702 -1.9899416 0.77470148 8.0148485e-39
0.81298125 -1.9899416 0.77470148 8.0148485e-39
0.81868541 -1.9899416 0.77470148 8.0148499e-39
0.82248819 -1.9899416 0.77470148 8.0148499e-39
0.82629102 -1.9899416 0.77470148 7.9230144e-39
0.83199519 -1.9899416 0.77470148 7.9230144e-39
0.83769929 -1.9899412 0.7747016 8.0152114e-39
0.84150207 -1.9899412 0.7747016 8.0152128e-39
0.84720629 -1.9899412 0.7747016 8.0155715e-39
0.85291046 -1.9899412 0.7747016 8.015573e-39
0.85671324 -1.9899412 0.7747016 8.0152128e-39
0.86241746 -1.9899412 0.7747016 7.9233773e-39
0.86812162 -1.9899412 0.7747016 7.9230172e-39
0.87192446 -1.9899412 0.7747016 7.8311817e-39
0.87762862 -1.9899412 0.7747016 7.8308202e-39
0.88333279 -1.9899412 0.7747016 7.7386245e-39
0.88713551 -1.989941 0.77470171 7.7386245e-39
0.89283967 -1.989941 0.77470171 7.7386259e-39
0.89854389 -1.989941 0.77470171 7.7389861e-39
0.90234667 -1.989941 0.77470171 7.8308216e-39
0.90805089 -1.989941 0.77470171 7.8311817e-39
0.91375506 -1.989941 0.77470171 7.8311831e-39
-0.91170502 -1.9805019 0.77469915 7.8315446e-39
-0.9079172 -1.9805019 0.77469915 7.8315432e-39
-0.90223539 -1.9805019 0.77469915 7.8311831e-39
-0.89655364 -1.9805019 0.77469915 7.8311831e-39
-0.89276576 -1.9805019 0.77469915 7.8311831e-39
-0.88708401 -1.9805019 0.77469915 7.8311831e-39
-0.88140219 -1.9805019 0.77469915 7.8311831e-39
-0.87761438 -1.9805019 0.77469915 7.8311845e-39
-0.87193251 -1.9805018 0.77469927 7.8315446e-39
-0.86625069 -1.9805018 0.77469927 7.8319062e-39
-0.862463 -1.9805019 0.77469915 7.831546e-39
-0.858675 -1.9805018 0.77469927 7.831546e-39
-0.85299325 -1.9805018 0.77469927 7.7393504e-39
-0.8473115 -1.9805018 0.77469927 7.7393504e-39
-0.84352362 -1.9805018 0.77469927 7.8315446e-39
-0.83784187 -1.9805018 0.77469927 7.831546e-39
-0.83216006 -1.9805018 0.77469927 7.9237431e-39
-0.82837224 -1.9805018 0.77469927 7.9241018e-39
-0.82269049 -1.9805018 0.77469927 7.9237417e-39
-0.81700867 -1.9805018 0.77469927 7.9237403e-39
-0.8132208 -1.9805018 0.77469927 7.9233815e-39
-0.80943298 -1.9805018 0.77469927 7.9233801e-39
-0.69579732 -1.9805013 0.77469945 8.0166604e-39
-0.69200945 -1.9805013 0.77469945 8.016659e-39
-0.68822163 -1.9805013 0.77469945 8.0163002e-39
-0.68253982 -1.9805013 0.77469945 7.9241046e-39
-0.67685807 -1.9805013 0.77469945 7.9241032e-39
-0.67307025 -1.9805013 0.77469945 7.9237417e-39
-0.66738844 -1.9805013 0.77469945 7.9233801e-39
-0.66170669 -1.9805013 0.77469945 7.9233759e-39
-0.65791881 -1.9805013 0.77469945 7.9230144e-39
-0.65223706 -1.9805013 0.77469945 7.9230144e-39
-0.6465553 -1.9805013 0.77469945 7.9230158e-39
-0.64276743 -1.9805013 0.77469945 7.9230158e-39
-0.63708568 -1.9805013 0.77469945 7.9230158e-39
-0.63140392 -1.9805013 0.77469945 8.0152128e-39
-0.62761605 -1.9805013 0.77469945 8.0155715e-39
-0.62193424 -1.9805012 0.77469951 8.015573e-39
-0.61625242 -1.9805009 0.77469957 8.0155744e-39
-0.61246461 -1.9805009 0.77469957 8.0155744e-39
-0.60867673 -1.9805009 0.77469957 7.9237389e-39
-0.60299492 -1.9805009 0.77469957 7.8315432e-39
-0.59731317 -1.9805009 0.77469957 7.8315446e-39
-0.59352535 -1.9805009 0.77469957 7.831546e-39
-0.58784354 -1.9805009 0.77469957 7.8319062e-39
-0.58216178 -1.9805009 0.77469957 7.8319076e-39
-0.57837397 -1.9805009 0.77469957 7.8319076e-39
-0.57269216 -1.9805009 0.77469957 7.8319062e-39
-0.5670104 -1.9805009 0.77469957 7.831546e-39
-0.56322253 -1.9805009 0.77469957 7.8315446e-39
-0.55754077 -1.9805009 0.77469957 7.831546e-39
-0.55185902 -1.9805009 0.77469957 7.9237431e-39
-0.54807115 -1.9805009 0.77469957 7.9241032e-39
-0.54238939 -1.9805009 0.77469957 7.9241046e-39
-0.53670758 -1.9805008 0.77469969 8.0159387e-39
-0.5329197 -1.9805008 0.77469969 8.0159387e-39
-0.52723789 -1.9805008 0.77469969 8.0159373e-39
-0.52155614 -1.9805008 0.77469969 8.0159359e-39
-0.51776832 -1.9805008 0.77469969 8.0159359e-39
-0.51208651 -1.9805008 0.77469969 7.9237403e-39
-0.50640476 -1.9805008 0.77469969 7.9237403e-39
-0.50261694 -1.9805008 0.77469969 7.9233815e-39
-0.49693516 -1.9805008 0.77469969 7.9237403e-39
-0.49125338 -1.9805008 0.77469969 7.9237403e-39
-0.4874655 -1.9805008 0.77469969 7.9237403e-39
-0.48367769 -1.9805008 0.77469969 7.9237403e-39
-0.4779959 -1.9805008 0.77469969 7.9237389e-39
-0.47231418 -1.9805008 0.77469969 8.0155744e-39
-0.4685263 -1.9805008 0.77469969 8.1074084e-39
-0.46284449 -1.9805006 0.77469975 8.107407e-39
-0.45716268 -1.9805006 0.77469975 8.0155715e-39
-0.45337486 -1.9805006 0.77469975 8.0152114e-39
-0.44769308 -1.9805006 0.77469975 8.01521e-39
-0.4420113 -1.9805006 0.77469975 8.0152086e-39
-0.43822348 -1.9805006 0.77469975 8.0148499e-39
-0.4325417 -1.9805006 0.77469975 7.923013e-39
-0.42685992 -1.9805006 0.77469975 8.0148471e-39
-0.4230721 -1.9805006 0.77469975 8.0148471e-39
-0.41739032 -1.9805006 0.77469975 8.0148471e-39
-0.41170853 -1.9805006 0.77469975 8.1070427e-39
-0.40792066 -1.9805006 0.77469975 8.1070427e-39
-0.40223891 -1.9805006 0.77469975 8.0148485e-39
-0.39655715 -1.9805006 0.77469975 8.0148485e-39
-0.39276928 -1.9805006 0.77469975 7.923013e-39
-0.38708752 -1.9805006 0.77469975 7.9230144e-39
-0.38140577 -1.9805006 0.77469975 8.0148513e-39
-0.37761784 -1.9805003 0.77469987 8.01521e-39
-0.37193608 -1.9805003 0.77469987 8.0152114e-39
-0.36625433 -1.9805003 0.77469987 8.01521e-39
-0.36246645 -1.9805003 0.77469987 7.9230158e-39
-0.35867864 -1.9805003 0.77469987 7.9230144e-39
-0.35299686 -1.9805003 0.77469987 7.8308202e-39
-0.34731507 -1.9805003 0.77469987 7.8308202e-39
-0.34352726 -1.9805003 0.77469987 7.8308202e-39
-0.33784547 -1.9805003 0.77469987 7.7386259e-39
-0.33216369 -1.9805003 0.77469987 7.7389847e-39
-0.32837588 -1.9805003 0.77469987 7.7389861e-39
-0.32269409 -1.9805003 0.77469987 7.8311817e-39
-0.31701231 -1.9805003 0.77469987 7.8315432e-39
-0.31322443 -1.9805003 0.77469987 7.8315432e-39
-0.30754268 -1.9805003 0.77469987 7.8315432e-39
-0.30186093 -1.9805003 0.77469987 7.9233787e-39
-0.29807305 -1.9805003 0.77469987 7.9233787e-39
-0.2923913 -1.9805002 0.77469993 7.9233787e-39
-0.28670949 -1.9805001 0.77469993 7.9233787e-39
-0.28292167 -1.9805001 0.77469993 7.9233787e-39
-0.27723989 -1.9805001 0.77469993 7.9233773e-39
-0.27155811 -1.9805001 0.77469993 7.9233773e-39
-0.26777029 -1.9805001 0.77469993 7.9233759e-39
-0.26208851 -1.9805001 0.77469993 7.9230158e-39
-0.25640672 -1.9805001 0.77469993 7.9230158e-39
-0.25261891 -1.9805001 0.77469993 7.9230158e-39
-0.2469371 -1.9805001 0.77469993 7.9233745e-39
-0.24125533 -1.9805001 0.77469993 8.0152114e-39
-0.23746748 -1.9805001 0.77469993 8.1074056e-39
-0.23367964 -1.9805001 0.77469993 8.0155701e-39
-0.22799787 -1.9805001 0.77469993 8.0152114e-39
-0.2223161 -1.9805001 0.77469993 8.0152114e-39
-0.21852826 -1.9805001 0.77469993 8.0152114e-39
-0.21284649 -1.9805001 0.77469993 8.0152128e-39
-0.20716469 -1.9805 0.77470005 8.015573e-39
-0.20337684 -1.9805 0.77470005 8.0159331e-39
-0.19769508 -1.9805 0.77470005 8.0159331e-39
-0.19201331 -1.9805 0.77470005 8.1077672e-39
-0.18822546 -1.9805 0.77470005 8.107407e-39
-0.18254369 -1.9805 0.77470005 8.1074042e-39
-0.17686193 -1.9805 0.77470005 8.1074042e-39
-0.17307408 -1.9805 0.77470005 8.1070455e-39
-0.16739231 -1.9805 0.77470005 8.01521e-39
-0.16171055 -1.9805 0.77470005 8.0148499e-39
-0.1579227 -1.9805 0.77470005 8.0148499e-39
-0.15224093 -1.9805 0.77470005 8.0148499e-39
-0.14655915 -1.9805 0.77470005 8.0152086e-39
-0.1427713 -1.9805 0.77470005 8.0152086e-39
-0.13708954 -1.9805 0.77470005 8.0152086e-39
-0.13140777 -1.9805 0.77470005 8.1070441e-39
-0.12761991 -1.9804997 0.77470016 8.1070455e-39
-0.12193814 -1.9804997 0.77470016 8.1070455e-39
-0.11625637 -1.9804997 0.77470016 8.1070441e-39
-0.11246853 -1.9804997 0.77470016 8.1070441e-39
-0.10868068 -1.9804997 0.77470016 8.1070427e-39
-0.10299891 -1.9804997 0.77470016 8.1070427e-39
-0.097317144 -1.9804997 0.77470016 8.1070441e-39
0.12805964 -1.9804991 0.77470046 7.9237403e-39
0.13374141 -1.9804991 0.77470046 7.9237389e-39
0.13752925 -1.9804991 0.77470046 7.9237375e-39
0.1413171 -1.9804991 0.77470046 7.9233773e-39
0.14699887 -1.9804991 0.77470046 7.9233773e-39
0.15268064 -1.9804991 0.77470046 7.9233773e-39
0.15646848 -1.9804991 0.77470046 7.8311831e-39
0.16215025 -1.9804991 0.77470046 7.8311831e-39
0.16783202 -1.9804991 0.77470046 7.8311817e-39
0.17161986 -1.9804991 0.77470046 7.8311817e-39
0.17730162 -1.9804991 0.77470046 7.8311817e-39
0.18298338 -1.9804991 0.77470046 7.8311817e-39
0.18677123 -1.9804991 0.77470046 7.8311817e-39
0.192453 -1.9804991 0.77470046 7.8311817e-39
0.19813477 -1.9804991 0.77470046 7.9230158e-39
0.2019226 -1.9804989 0.77470058 7.9230172e-39
0.20760436 -1.9804989 0.77470058 7.9233773e-39
0.21328612 -1.9804989 0.77470058 7.9237389e-39
0.21707396 -1.9804989 0.77470058 8.0155758e-39
0.22275573 -1.9804989 0.77470058 8.0159359e-39
0.2284375 -1.9804989 0.77470058 8.0159373e-39
0.23222534 -1.9804989 0.77470058 7.9241018e-39
0.23790711 -1.9804989 0.77470058 7.9241018e-39
0.24358888 -1.9804989 0.77470058 7.9237431e-39
0.24737673 -1.9804989 0.77470058 7.9237431e-39
0.25305849 -1.9804989 0.77470058 7.9237431e-39
0.25874025 -1.9804989 0.77470058 7.9237431e-39
0.26252809 -1.9804989 0.77470058 7.9237431e-39
0.26631594 -1.9804989 0.77470058 7.831909e-39
0.27199769 -1.9804989 0.77470058 7.8322677e-39
0.27767944 -1.9804989 0.77470058 7.8322691e-39
0.28146726 -1.9804987 0.77470064 7.8322677e-39
0.28714904 -1.9804987 0.77470064 7.8319062e-39
0.29283082 -1.9804987 0.77470064 7.8319048e-39
0.29661864 -1.9804987 0.77470064 7.831546e-39
0.30230042 -1.9804987 0.77470064 7.8315446e-39
0.30798221 -1.9804987 0.77470064 7.8315432e-39
0.31177002 -1.9804987 0.77470064 7.8315432e-39
0.3174518 -1.9804987 0.77470064 7.8311831e-39
0.32313359 -1.9804987 0.77470064 7.8311831e-39
0.3269214 -1.9804987 0.77470064 7.8311831e-39
0.33260319 -1.9804987 0.77470064 7.8311831e-39
0.33828497 -1.9804987 0.77470064 7.8311831e-39
0.34207278 -1.9804987 0.77470064 7.8315432e-39
0.34775454 -1.9804987 0.77470064 7.8315446e-39
0.35343629 -1.9804983 0.77470076 7.8319062e-39
0.35722411 -1.9804983 0.77470076 7.831546e-39
0.36290589 -1.9804983 0.77470076 7.8315446e-39
0.36858767 -1.9804983 0.77470076 7.7393504e-39
0.37237549 -1.9804983 0.77470076 7.7393504e-39
0.37805727 -1.9804983 0.77470076 7.831546e-39
0.38373899 -1.9804983 0.77470076 7.8319062e-39
0.38752687 -1.9804983 0.77470076 7.9237431e-39
0.39131469 -1.9804983 0.77470076 7.9241018e-39
0.39699647 -1.9804983 0.77470076 7.9237417e-39
0.40267825 -1.9804983 0.77470076 7.9237403e-39
0.40646607 -1.9804983 0.77470076 7.9233815e-39
0.41214782 -1.9804983 0.77470082 7.9233801e-39
0.41782957 -1.9804982 0.77470088 7.9237403e-39
0.42161739 -1.9804982 0.77470088 7.9237417e-39
0.42540526 -1.9804982 0.77470088 7.9237417e-39
0.79661334 -1.9804969 0.77470136 8.0148471e-39
0.80229503 -1.9804968 0.77470142 8.0148471e-39
0.80797678 -1.9804966 0.77470148 8.1070427e-39
0.8117646 -1.9804966 0.77470148 8.1070427e-39
0.81744635 -1.9804966 0.77470148 8.0148485e-39
0.8231281 -1.9804966 0.77470148 8.0148485e-39
0.82691598 -1.9804966 0.77470148 7.923013e-39
0.83259773 -1.9804966 0.77470148 7.9230144e-39
0.83827949 -1.9804966 0.77470148 8.0148513e-39
0.8420673 -1.9804966 0.77470148 8.01521e-39
0.84774911 -1.9804966 0.77470148 8.0152114e-39
0.85343081 -1.9804966 0.77470148 8.01521e-39
0.85721856 -1.9804965 0.77470154 7.9230158e-39
0.86290038 -1.9804965 0.77470154 7.8308202e-39
0.86858207 -1.9804965 0.77470154 7.8308202e-39
0.87236995 -1.9804965 0.77470154 7.8308202e-39
0.8780517 -1.9804965 0.77470154 7.7389847e-39
0.88373345 -1.9804965 0.77470154 7.7386259e-39
0.88752127 -1.9804965 0.77470154 7.7389861e-39
0.89130914 -1.9804965 0.77470154 7.7389861e-39
0.8969909 -1.9804965 0.77470154 7.8311817e-39
0.90267265 -1.9804965 0.77470154 7.8315432e-39
0.9064604 -1.9804963 0.77470165 7.8315432e-39
0.91214216 -1.9804963 0.77470165 7.8315432e-39
-0.91182071 -1.9711312 0.77469909 7.8311845e-39
-0.90804768 -1.9711312 0.77469909 7.8311831e-39
-0.90238816 -1.9711312 0.77469909 7.7389875e-39
-0.89672863 -1.9711312 0.77469909 7.7389875e-39
-0.8929556 -1.9711312 0.77469909 7.7389875e-39
-0.88729596 -1.971131 0.77469921 7.8308216e-39
-0.8816365 -1.971131 0.77469921 7.8311817e-39
-0.87786347 -1.971131 0.77469921 7.8311831e-39
-0.87220395 -1.971131 0.77469921 7.8311831e-39
-0.86654443 -1.971131 0.77469921 7.8315446e-39
-0.86277139 -1.971131 0.77469921 7.8315446e-39
-0.85711193 -1.971131 0.77469921 7.8315446e-39
-0.85145241 -1.971131 0.77469921 7.8315446e-39
-0.84767938 -1.971131 0.77469921 7.8315446e-39
-0.84201986 -1.971131 0.77469921 7.8315446e-39
-0.83636034 -1.971131 0.77469921 7.831546e-39
-0.8325873 -1.971131 0.77469921 7.8319048e-39
-0.82881433 -1.971131 0.77469921 7.9237417e-39
-0.67789364 -1.9711306 0.77469945 8.0159373e-39
-0.67223418 -1.9711306 0.77469945 8.0155758e-39
-0.6665746 -1.9711306 0.77469945 8.0152142e-39
-0.66280162 -1.9711306 0.77469945 7.9233759e-39
-0.65714204 -1.9711306 0.77469945 7.9230144e-39
-0.65148258 -1.9711306 0.77469945 7.9230158e-39
-0.64770949 -1.9711304 0.77469957 7.9230158e-39
-0.64204997 -1.9711304 0.77469957 7.9230172e-39
-0.63639045 -1.9711304 0.77469957 7.9233773e-39
-0.63261741 -1.9711304 0.77469957 8.0152128e-39
-0.62695789 -1.9711304 0.77469957 8.0152128e-39
-0.62129837 -1.9711304 0.77469957 8.015573e-39
-0.6175254 -1.9711304 0.77469957 8.0155744e-39
-0.61375237 -1.9711304 0.77469957 8.0155744e-39
-0.6080929 -1.9711304 0.77469957 7.9233801e-39
-0.60243332 -1.9711304 0.77469957 7.9233801e-39
-0.59866035 -1.9711304 0.77469957 7.9233801e-39
-0.59300077 -1.9711304 0.77469957 7.9237431e-39
-0.58734131 -1.9711304 0.77469957 7.9241046e-39
-0.58356827 -1.9711304 0.77469957 7.9241074e-39
-0.57790875 -1.9711304 0.77469957 7.8322705e-39
-0.57224923 -1.9711304 0.77469957 7.831909e-39
-0.5684762 -1.97113 0.77469963 7.8319076e-39
-0.56281662 -1.97113 0.77469963 7.8315446e-39
-0.55715716 -1.97113 0.77469963 7.831546e-39
-0.55338413 -1.97113 0.77469963 7.9237417e-39
-0.5477246 -1.97113 0.77469963 7.9237431e-39
-0.54206508 -1.97113 0.77469963 7.9241032e-39
-0.53829211 -1.97113 0.77469963 8.0159387e-39
-0.53263259 -1.97113 0.77469963 8.0159359e-39
-0.52697307 -1.97113 0.77469963 8.0159359e-39
-0.52320004 -1.97113 0.77469963 8.0159345e-39
-0.51754057 -1.97113 0.77469963 8.0155758e-39
-0.51188099 -1.97113 0.77469963 8.0155744e-39
-0.50810802 -1.97113 0.77469963 8.0155744e-39
-0.50244844 -1.97113 0.77469963 7.9237389e-39
-0.49678898 -1.97113 0.77469963 7.9237389e-39
-0.49301594 -1.97113 0.77469963 7.9237389e-39
-0.48735645 -1.97113 0.77469963 7.9237389e-39
-0.48169684 -1.9711299 0.77469975 7.9237389e-39
-0.47792387 -1.9711299 0.77469975 8.0155744e-39
-0.47226435 -1.9711299 0.77469975 8.1074084e-39
-0.46660483 -1.9711299 0.77469975 8.1996027e-39
-0.46283185 -1.9711299 0.77469975 8.1077658e-39
-0.4571723 -1.9711299 0.77469975 8.1074056e-39
-0.45151281 -1.9711299 0.77469975 8.1070455e-39
-0.44773978 -1.9711299 0.77469975 8.0152086e-39
-0.44208029 -1.9711299 0.77469975 8.0148485e-39
-0.43642074 -1.9711299 0.77469975 8.0148485e-39
-0.43264776 -1.9711299 0.77469975 8.0148471e-39
-0.42698824 -1.9711299 0.77469975 8.0148471e-39
-0.42132872 -1.9711299 0.77469975 8.0148471e-39
-0.41755569 -1.9711299 0.77469975 8.0148471e-39
-0.4118962 -1.9711299 0.77469975 8.1066826e-39
-0.40623665 -1.9711299 0.77469975 8.1070413e-39
-0.40246367 -1.9711299 0.77469975 8.0148485e-39
-0.39869058 -1.9711297 0.77469981 8.0148485e-39
-0.39303109 -1.9711297 0.77469981 7.9230144e-39
-0.3873716 -1.9711297 0.77469981 7.9230144e-39
-0.38359857 -1.9711297 0.77469981 7.9230144e-39
-0.37793905 -1.9711297 0.77469981 7.9230144e-39
-0.37227952 -1.9711297 0.77469981 7.9230144e-39
-0.36850655 -1.9711297 0.77469981 7.9230144e-39
-0.362847 -1.9711297 0.77469981 7.9226557e-39
-0.35718751 -1.9711297 0.77469981 7.8308188e-39
-0.35341448 -1.9711297 0.77469981 7.8308188e-39
-0.34775499 -1.9711297 0.77469981 7.8308188e-39
-0.34209543 -1.9711297 0.77469981 7.8308202e-39
-0.33832246 -1.9711297 0.77469981 7.8308202e-39
-0.33266294 -1.9711297 0.77469981 7.8308216e-39
-0.32700336 -1.9711294 0.77469993 7.8311817e-39
-0.32323039 -1.9711294 0.77469993 7.9233773e-39
-0.31757089 -1.9711297 0.77469981 7.9233787e-39
-0.31191134 -1.9711294 0.77469993 7.9237389e-39
-0.30813831 -1.9711294 0.77469993 7.9233787e-39
-0.30247882 -1.9711294 0.77469993 7.9233787e-39
-0.29681933 -1.9711294 0.77469993 7.9233787e-39
-0.2930463 -1.9711294 0.77469993 7.9230186e-39
-0.28738678 -1.9711294 0.77469993 7.8311817e-39
-0.28172725 -1.9711294 0.77469993 7.8311817e-39
-0.27795428 -1.9711294 0.77469993 7.8308216e-39
-0.27229473 -1.9711294 0.77469993 7.8308216e-39
-0.26663524 -1.9711294 0.77469993 7.8308216e-39
-0.26286221 -1.9711294 0.77469993 7.8311803e-39
-0.25720271 -1.9711294 0.77469993 7.8311803e-39
-0.25154316 -1.9711294 0.77469993 7.9230158e-39
-0.24777018 -1.9711294 0.77469993 7.9233745e-39
-0.24211065 -1.9711293 0.77469999 8.01521e-39
-0.23645113 -1.9711292 0.77470005 8.0155701e-39
-0.2326781 -1.9711292 0.77470005 8.0155701e-39
-0.22701859 -1.9711292 0.77470005 8.0152114e-39
-0.22135909 -1.9711292 0.77470005 8.0152114e-39
-0.21758607 -1.9711292 0.77470005 8.0152114e-39
-0.21192656 -1.9711292 0.77470005 8.0155715e-39
-0.20626704 -1.9711292 0.77470005 8.015573e-39
-0.20249404 -1.9711292 0.77470005 8.0155744e-39
-0.19872104 -1.9711292 0.77470005 8.0155744e-39
-0.19306152 -1.9711292 0.77470005 8.015573e-39
-0.18740201 -1.9711292 0.77470005 8.1074084e-39
-0.18362899 -1.9711292 0.77470005 8.1996013e-39
-0.17796949 -1.9711292 0.77470005 8.1074056e-39
-0.17230996 -1.9711292 0.77470005 8.1074056e-39
-0.16853696 -1.9711292 0.77470005 8.1070469e-39
-0.16287744 -1.9711292 0.77470005 8.01521e-39
-0.1572179 -1.9711291 0.77470016 8.01521e-39
-0.1534449 -1.9711291 0.77470016 8.01521e-39
-0.1477854 -1.9711291 0.77470016 8.01521e-39
-0.14212587 -1.9711291 0.77470016 8.01521e-39
-0.13835287 -1.9711291 0.77470016 8.01521e-39
-0.13269335 -1.9711291 0.77470016 8.1070455e-39
-0.12703384 -1.9711291 0.77470016 8.1070455e-39
-0.12326083 -1.9711291 0.77470016 8.1070455e-39
-0.11760132 -1.9711291 0.77470016 8.1070441e-39
-0.11194181 -1.9711291 0.77470016 8.106684e-39
-0.1081688 -1.9711291 0.77470016 8.1066826e-39
-0.10250929 -1.9711291 0.77470016 8.1066826e-39
-0.096849769 -1.9711291 0.77470016 8.1070427e-39
0.1219847 -1.9711283 0.7747004 7.9237403e-39
0.12764421 -1.9711283 0.7747004 7.9237389e-39
0.13330372 -1.9711283 0.7747004 7.9233801e-39
0.13707672 -1.9711283 0.7747004 7.9233787e-39
0.14273624 -1.9711283 0.7747004 7.9233773e-39
0.14839575 -1.9711283 0.7747004 7.9233773e-39
0.15216875 -1.9711283 0.7747004 7.9233773e-39
0.15782827 -1.9711283 0.7747004 7.9230172e-39
0.16348778 -1.9711283 0.7747004 7.9230172e-39
0.16726078 -1.9711283 0.7747004 7.8311803e-39
0.17292027 -1.9711282 0.7747004 7.8308202e-39
0.17857979 -1.9711282 0.7747004 7.8308202e-39
0.1823528 -1.9711282 0.7747004 7.8308188e-39
0.1880123 -1.9711282 0.7747004 7.8308202e-39
0.19367181 -1.9711282 0.7747004 7.9230144e-39
0.19744483 -1.9711282 0.7747004 7.9230158e-39
0.20310433 -1.9711282 0.7747004 7.9230172e-39
0.20876384 -1.9711282 0.7747004 7.9233787e-39
0.21253686 -1.9711282 0.7747004 7.9237403e-39
0.21630986 -1.9711282 0.7747004 7.9241004e-39
0.22196937 -1.9711282 0.7747004 7.9241018e-39
0.22762887 -1.9711282 0.7747004 7.9241032e-39
0.23140189 -1.9711282 0.7747004 7.9241032e-39
0.2370614 -1.9711282 0.7747004 7.9241046e-39
0.2427209 -1.9711282 0.7747004 7.9241032e-39
0.24649391 -1.9711282 0.7747004 7.9241032e-39
0.2521534 -1.971128 0.77470052 7.8319062e-39
0.25781292 -1.971128 0.77470052 7.831546e-39
0.26158589 -1.971128 0.77470052 7.8319062e-39
0.26724541 -1.971128 0.77470052 7.8319062e-39
0.27290493 -1.971128 0.77470052 7.8319076e-39
0.27667797 -1.971128 0.77470052 7.8322677e-39
0.28233746 -1.971128 0.77470052 7.8322663e-39
0.28799695 -1.971128 0.77470052 7.9241018e-39
0.29176998 -1.971128 0.77470052 7.9237431e-39
0.29742947 -1.971128 0.77470052 7.8319062e-39
0.30308896 -1.971128 0.77470052 7.8315446e-39
0.306862 -1.971128 0.77470052 7.8315432e-39
0.31252149 -1.971128 0.77470052 7.7389875e-39
0.31818104 -1.971128 0.77470052 7.7389875e-39
0.32195401 -1.971128 0.77470052 7.7389875e-39
0.32761353 -1.971128 0.77470052 7.7389861e-39
0.33327299 -1.9711277 0.77470064 7.8308216e-39
0.33704603 -1.9711277 0.77470064 7.8311817e-39
0.34270552 -1.9711277 0.77470064 7.8311831e-39
0.34836501 -1.9711277 0.77470064 7.8315432e-39
0.35213804 -1.9711277 0.77470064 7.8315446e-39
0.35779753 -1.9711277 0.77470064 7.8315446e-39
0.36345702 -1.9711277 0.77470064 7.8315446e-39
0.36723006 -1.9711277 0.77470064 7.8315446e-39
0.37288955 -1.9711277 0.77470064 7.8315446e-39
0.3785491 -1.9711277 0.77470064 7.831546e-39
0.38232207 -1.9711277 0.77470064 7.831546e-39
0.38798159 -1.9711277 0.77470064 7.8319048e-39
0.39364111 -1.9711277 0.77470064 7.8319062e-39
0.39741409 -1.9711274 0.77470076 7.8319048e-39
0.40307358 -1.9711274 0.77470076 7.8315446e-39
0.40873307 -1.9711274 0.77470076 7.8315446e-39
0.4125061 -1.9711274 0.77470076 7.831546e-39
0.41627908 -1.9711274 0.77470076 7.831546e-39
0.4219386 -1.9711274 0.77470076 7.8319062e-39
0.79357904 -1.971126 0.77470142 8.0148471e-39
0.79735208 -1.971126 0.77470142 8.0148471e-39
0.80301154 -1.971126 0.77470142 8.0148471e-39
0.80867106 -1.971126 0.77470142 8.1070413e-39
0.81244409 -1.971126 0.77470142 8.1070413e-39
0.81810355 -1.971126 0.77470142 8.0148485e-39
0.82376307 -1.971126 0.77470142 8.0148499e-39
0.82753605 -1.971126 0.77470142 7.9230144e-39
0.83130908 -1.971126 0.77470142 7.9230144e-39
0.83696848 -1.9711257 0.77470154 7.9230144e-39
0.842628 -1.9711257 0.77470154 7.9230144e-39
0.84640098 -1.9711257 0.77470154 7.9230144e-39
0.8520605 -1.9711257 0.77470154 7.9230144e-39
0.85772002 -1.9711257 0.77470154 7.9226557e-39
0.86149299 -1.9711257 0.77470154 7.8308188e-39
0.86715251 -1.9711257 0.77470154 7.8308188e-39
0.87281203 -1.9711257 0.77470154 7.8308202e-39
0.87658501 -1.9711257 0.77470154 7.8308202e-39
0.88224453 -1.9711257 0.77470154 7.8308202e-39
0.88790393 -1.9711256 0.77470165 7.8311803e-39
0.8916769 -1.9711256 0.77470165 7.8311817e-39
0.89733642 -1.9711256 0.77470165 7.9233773e-39
0.90299594 -1.9711256 0.77470165 7.9233787e-39
0.90676892 -1.9711256 0.77470165 7.9237389e-39
0.91242844 -1.9711256 0.77470165 7.9233787e-39
-0.91193533 -1.9618334 0.77469921 7.8311845e-39
-0.90817714 -1.9618336 0.77469909 7.7389875e-39
-0.90253961 -1.9618334 0.77469921 7.7389861e-39
-0.89690214 -1.9618334 0.77469921 7.7389861e-39
-0.89314389 -1.9618334 0.77469921 7.7389861e-39
-0.88750643 -1.9618334 0.77469921 7.7389861e-39
-0.88186902 -1.9618334 0.77469921 7.7389861e-39
-0.87811071 -1.9618334 0.77469921 7.7389875e-39
-0.87247324 -1.9618334 0.77469921 7.7393462e-39
-0.86683583 -1.9618334 0.77469921 7.7393476e-39
-0.86307752 -1.9618334 0.77469921 7.739349e-39
-0.85744011 -1.9618334 0.77469921 7.739349e-39
-0.85180265 -1.9618334 0.77469921 7.8315446e-39
-0.8480444 -1.9618334 0.77469921 7.8315446e-39
-0.66012967 -1.961833 0.77469933 7.9230158e-39
-0.6563713 -1.9618328 0.77469945 7.9226557e-39
-0.65261298 -1.9618328 0.77469945 7.9230144e-39
-0.64697558 -1.9618328 0.77469945 7.9230158e-39
-0.64133817 -1.9618328 0.77469945 8.0152114e-39
-0.63757986 -1.9618328 0.77469945 8.0152128e-39
-0.63194239 -1.9618328 0.77469945 8.0152128e-39
-0.62630498 -1.9618328 0.77469945 8.0152128e-39
-0.62254667 -1.9618328 0.77469945 8.0152128e-39
-0.61690927 -1.9618328 0.77469945 8.0152128e-39
-0.6112718 -1.9618328 0.77469945 8.0152142e-39
-0.60751355 -1.9618328 0.77469945 7.9237389e-39
-0.60375524 -1.9618328 0.77469945 7.9237389e-39
-0.59811783 -1.9618328 0.77469945 7.9237403e-39
-0.59248036 -1.9618328 0.77469945 7.9241032e-39
-0.58872211 -1.9618328 0.77469945 7.924106e-39
-0.58308464 -1.9618328 0.77469945 7.8322747e-39
-0.57744724 -1.9618328 0.77469945 7.8322733e-39
-0.57368886 -1.9618324 0.77469957 7.8322705e-39
-0.56805146 -1.9618324 0.77469957 7.8319076e-39
-0.56241399 -1.9618324 0.77469957 7.8315446e-39
-0.55865568 -1.9618324 0.77469957 7.9233815e-39
-0.55301827 -1.9618324 0.77469957 7.9237403e-39
-0.54738081 -1.9618324 0.77469957 7.9241018e-39
-0.54362255 -1.9618324 0.77469957 7.9241018e-39
-0.53798509 -1.9618324 0.77469957 8.0159359e-39
-0.53234768 -1.9618324 0.77469957 8.0159359e-39
-0.52858937 -1.9618324 0.77469957 8.0159345e-39
-0.52295196 -1.9618324 0.77469957 8.0155758e-39
-0.51731449 -1.9618324 0.77469957 8.0155744e-39
-0.51355624 -1.9618324 0.77469957 8.0155744e-39
-0.50791878 -1.9618324 0.77469957 7.9233787e-39
-0.50228137 -1.9618324 0.77469957 7.9233787e-39
-0.49852306 -1.9618324 0.77469957 7.9233787e-39
-0.49288565 -1.9618324 0.77469957 7.9233787e-39
-0.48724812 -1.9618323 0.77469963 7.9233787e-39
-0.48348987 -1.9618323 0.77469963 7.9237375e-39
-0.47785243 -1.9618323 0.77469963 8.015573e-39
-0.472215 -1.9618323 0.77469963 8.1077672e-39
-0.46845669 -1.9618323 0.77469963 8.1996041e-39
-0.46281928 -1.9618323 0.77469963 8.1992425e-39
-0.45718187 -1.9618323 0.77469963 8.1992397e-39
-0.45342356 -1.9618323 0.77469963 8.1988796e-39
-0.44778612 -1.9618323 0.77469963 8.1066812e-39
-0.44214869 -1.9618323 0.77469963 8.1066812e-39
-0.43839037 -1.9618323 0.77469963 8.1066812e-39
-0.43275297 -1.9618323 0.77469963 8.1066812e-39
-0.42711556 -1.9618323 0.77469963 8.1066826e-39
-0.42335725 -1.9618323 0.77469963 8.1066826e-39
-0.41771981 -1.9618323 0.77469963 8.1070413e-39
-0.41208237 -1.9618323 0.77469963 8.1070413e-39
-0.40832406 -1.9618323 0.77469963 8.1070427e-39
-0.4026866 -1.961832 0.77469975 8.0152072e-39
-0.39704919 -1.961832 0.77469975 8.01521e-39
-0.39329088 -1.961832 0.77469975 7.9233745e-39
-0.38765347 -1.961832 0.77469975 7.9233759e-39
-0.382016 -1.961832 0.77469975 7.9230172e-39
-0.37825775 -1.961832 0.77469975 7.9230158e-39
-0.37262028 -1.961832 0.77469975 7.9230158e-39
-0.36698288 -1.961832 0.77469975 7.9230158e-39
-0.36322457 -1.961832 0.77469975 7.9230158e-39
-0.35758716 -1.961832 0.77469975 7.9230158e-39
-0.35194969 -1.961832 0.77469975 7.9230158e-39
-0.34819144 -1.961832 0.77469975 7.9230158e-39
-0.34255397 -1.961832 0.77469975 7.9230158e-39
-0.33691657 -1.961832 0.77469975 7.9230158e-39
-0.33315825 -1.9618318 0.77469987 7.9230158e-39
-0.32752079 -1.9618318 0.77469987 7.9230172e-39
-0.32188338 -1.9618318 0.77469987 7.9233787e-39
-0.31812507 -1.9618318 0.77469987 7.9237389e-39
-0.31248763 -1.9618318 0.77469987 7.9237389e-39
-0.30685019 -1.9618318 0.77469987 7.9237375e-39
-0.30309194 -1.9618318 0.77469987 7.9233787e-39
-0.29745448 -1.9618318 0.77469987 7.9233759e-39
-0.29181707 -1.9618318 0.77469987 7.9230172e-39
-0.28805876 -1.9618318 0.77469987 7.8311817e-39
-0.28242135 -1.9618318 0.77469987 7.8308216e-39
-0.27678388 -1.9618318 0.77469987 7.7389861e-39
-0.27302563 -1.9618318 0.77469987 7.7389861e-39
-0.26738819 -1.9618318 0.77469987 7.8308216e-39
-0.26175076 -1.9618318 0.77469987 7.8311803e-39
-0.25799245 -1.9618318 0.77469987 7.9230158e-39
-0.25235504 -1.9618318 0.77469987 7.9230158e-39
-0.24671756 -1.9618316 0.77469993 8.0152114e-39
-0.24295928 -1.9618316 0.77469993 8.0155715e-39
-0.23732185 -1.9618316 0.77469993 8.015573e-39
-0.23168443 -1.9618316 0.77469993 8.0155715e-39
-0.22792614 -1.9618316 0.77469993 8.0155715e-39
-0.2222887 -1.9618316 0.77469993 8.0155715e-39
-0.21665128 -1.9618316 0.77469993 8.0155715e-39
-0.21289298 -1.9618316 0.77469993 8.015573e-39
-0.20725554 -1.9618316 0.77469993 7.9237389e-39
-0.20161812 -1.9618316 0.77469993 7.9237403e-39
-0.19785982 -1.9618316 0.77469993 7.9237403e-39
-0.1922224 -1.9618316 0.77469993 8.0155744e-39
-0.18658496 -1.9618316 0.77469993 8.1077672e-39
-0.18282668 -1.9618316 0.77469993 8.1996027e-39
-0.17718925 -1.9618316 0.77469993 8.1074056e-39
-0.17155181 -1.9618316 0.77469993 8.1074056e-39
-0.16779353 -1.9618316 0.77469993 8.01521e-39
-0.16215611 -1.9618316 0.77469993 8.0148499e-39
-0.15651864 -1.9618315 0.77470005 8.0152086e-39
-0.15276036 -1.9618315 0.77470005 8.01521e-39
-0.14712292 -1.9618315 0.77470005 8.01521e-39
-0.1414855 -1.9618315 0.77470005 8.01521e-39
-0.13772722 -1.9618315 0.77470005 8.01521e-39
-0.13208978 -1.9618315 0.77470005 8.01521e-39
-0.12645234 -1.9618315 0.77470005 8.01521e-39
-0.12269406 -1.9618315 0.77470005 8.0152086e-39
-0.11705663 -1.9618315 0.77470005 8.0148485e-39
-0.1114192 -1.9618315 0.77470005 8.0148471e-39
-0.1076609 -1.9618315 0.77470005 8.0144869e-39
-0.10202347 -1.9618315 0.77470005 7.92265e-39
-0.096386045 -1.9618315 0.77470005 8.0148471e-39
0.12159458 -1.9618307 0.77470034 7.9233815e-39
0.127232 -1.9618307 0.77470034 7.9233801e-39
0.13286944 -1.9618307 0.77470034 7.9233787e-39
0.13662772 -1.9618307 0.77470034 7.9233773e-39
0.14226516 -1.9618307 0.77470034 7.9233759e-39
0.14790258 -1.9618307 0.77470034 7.9233745e-39
0.15166086 -1.9618307 0.77470034 7.9233745e-39
0.15729828 -1.9618306 0.7747004 7.9230158e-39
0.1629357 -1.9618306 0.7747004 7.9230144e-39
0.166694 -1.9618306 0.7747004 7.9230144e-39
0.17233142 -1.9618306 0.7747004 7.8308188e-39
0.17796884 -1.9618306 0.7747004 7.8308188e-39
0.18172714 -1.9618306 0.7747004 7.8308174e-39
0.18736456 -1.9618306 0.7747004 7.8308188e-39
0.19300199 -1.9618306 0.7747004 7.8308188e-39
0.19676028 -1.9618306 0.7747004 7.9226543e-39
0.2023977 -1.9618306 0.7747004 7.9226557e-39
0.20803514 -1.9618306 0.7747004 7.9233773e-39
0.21179342 -1.9618306 0.7747004 7.9233801e-39
0.21743084 -1.9618306 0.7747004 7.9237417e-39
0.22306828 -1.9618306 0.7747004 7.9241032e-39
0.22682656 -1.9618306 0.7747004 7.9241032e-39
0.23246399 -1.9618306 0.7747004 7.9241046e-39
0.23810142 -1.9618306 0.7747004 7.9244647e-39
0.2418597 -1.9618306 0.7747004 7.9241046e-39
0.24749711 -1.9618304 0.77470052 7.8319076e-39
0.25313455 -1.9618304 0.77470052 7.8319062e-39
0.2568928 -1.9618304 0.77470052 7.831546e-39
0.26253027 -1.9618304 0.77470052 7.831546e-39
0.26816767 -1.9618304 0.77470052 7.8319062e-39
0.27192596 -1.9618304 0.77470052 7.8319062e-39
0.27756339 -1.9618304 0.77470052 7.8319076e-39
0.2832008 -1.9618304 0.77470052 7.8319076e-39
0.28695911 -1.9618304 0.77470052 7.8319076e-39
0.29259652 -1.9618304 0.77470052 7.8319076e-39
0.29823393 -1.9618304 0.77470052 7.8319062e-39
0.30199224 -1.9618304 0.77470052 7.831546e-39
0.30762967 -1.9618304 0.77470052 7.7393476e-39
0.31326711 -1.9618304 0.77470052 7.7389875e-39
0.31702536 -1.9618304 0.77470052 7.7389861e-39
0.3226628 -1.9618304 0.77470052 7.7389861e-39
0.32830024 -1.9618304 0.77470052 7.7389861e-39
0.33205855 -1.9618304 0.77470052 7.8308216e-39
0.3376959 -1.9618301 0.77470064 7.7389861e-39
0.34333336 -1.9618301 0.77470064 7.7389875e-39
0.34709162 -1.9618301 0.77470064 7.7393462e-39
0.35272905 -1.9618301 0.77470064 7.7393476e-39
0.35836649 -1.9618301 0.77470064 7.739349e-39
0.36212474 -1.9618301 0.77470064 7.7397077e-39
0.36776218 -1.9618301 0.77470064 7.8315446e-39
0.37339962 -1.9618301 0.77470064 7.831546e-39
0.37715793 -1.9618301 0.77470064 7.831546e-39
0.38279533 -1.9618301 0.77470064 7.831546e-39
0.38843274 -1.9618301 0.77470064 7.9237403e-39
0.39219099 -1.9618298 0.7747007 7.9237403e-39
0.39782843 -1.9618298 0.7747007 7.831546e-39
0.40346587 -1.9618298 0.7747007 7.8315446e-39
0.40722412 -1.9618298 0.7747007 7.8315446e-39
0.41286156 -1.9618298 0.7747007 7.8315446e-39
0.41849899 -1.9618298 0.7747007 7.8319062e-39
0.42225724 -1.9618298 0.7747007 7.831909e-39
0.79244769 -1.9618284 0.77470142 8.1066826e-39
0.79808509 -1.9618284 0.77470142 8.1070413e-39
0.80184335 -1.9618284 0.77470142 8.1070413e-39
0.80748081 -1.9618284 0.77470142 8.1070413e-39
0.81311822 -1.9618284 0.77470142 8.1070427e-39
0.81687647 -1.9618284 0.77470142 8.0152086e-39
0.82251394 -1.9618284 0.77470142 8.0152086e-39
0.82815135 -1.9618284 0.77470142 7.9233759e-39
0.83190954 -1.9618281 0.77470154 7.9233759e-39
0.83754694 -1.9618281 0.77470154 7.9230158e-39
0.84318435 -1.9618281 0.77470154 7.9230158e-39
0.84694266 -1.9618281 0.77470154 7.9230158e-39
0.85258007 -1.9618281 0.77470154 7.9230158e-39
0.85821748 -1.9618281 0.77470154 7.9230158e-39
0.86197579 -1.9618281 0.77470154 7.9230158e-39
0.8676132 -1.9618281 0.77470154 7.9230158e-39
0.8732506 -1.9618281 0.77470154 7.9230158e-39
0.87700891 -1.9618281 0.77470154 7.9230158e-39
0.88264626 -1.961828 0.7747016 7.9230158e-39
0.88828367 -1.961828 0.7747016 7.9230172e-39
0.89204192 -1.961828 0.7747016 7.9233773e-39
0.89767933 -1.961828 0.7747016 7.9233773e-39
0.90331674 -1.961828 0.7747016 8.0155744e-39
0.90707505 -1.961828 0.7747016 8.0155744e-39
0.9108333 -1.961828 0.7747016 7.9237389e-39
-0.91204929 -1.9526082 0.77469903 7.8311831e-39
-0.90830559 -1.9526082 0.77469903 7.8311831e-39
-0.90269005 -1.9526081 0.77469909 7.830823e-39
-0.89707446 -1.952608 0.77469915 7.830823e-39
-0.89333075 -1.952608 0.77469915 7.830823e-39
-0.88771522 -1.952608 0.77469915 7.8308216e-39
-0.88209969 -1.952608 0.77469915 7.7389861e-39
-0.87835604 -1.952608 0.77469915 7.7389861e-39
-0.87274051 -1.952608 0.77469915 7.7389861e-39
-0.86712497 -1.952608 0.77469915 7.7389875e-39
-0.86338127 -1.952608 0.77469915 7.7389875e-39
-0.85963762 -1.952608 0.77469915 7.7393476e-39
